# q, eta, news_peak_time (M), strain_peak_time (M)
1.600002600002599973e+00 2.366863017749999687e-01 6.884088452820940347e+02 6.817793127299207754e+02
1.399998080001535916e+00 2.430556111109999917e-01 6.753848283697801662e+02 6.685390581302569899e+02
1.200002200002200148e+00 2.479338429749999850e-01 6.655497239794054849e+02 6.590596078762998786e+02
1.100002100002100081e+00 2.494330838999999911e-01 6.627882259902305577e+02 6.563842511783190048e+02
1.299997930001862922e+00 2.457467429109999602e-01 6.700711998262465841e+02 6.634168251118633179e+02
1.499999999999999778e+00 2.399999999999999911e-01 6.812341946992862631e+02 6.743409513183933086e+02
1.000000000000000000e+00 2.500000000000000000e-01 6.615455621937007891e+02 6.551878273544843978e+02
4.500005500005499925e+00 1.487602148759999965e-01 9.661872474397925998e+02 9.592216064254992034e+02
3.000000000000000000e+00 1.875000000000000000e-01 8.145941761029471309e+02 8.082124640588779130e+02
2.900003900003899737e+00 1.906639119000000104e-01 8.038768444440174790e+02 7.971635965895301297e+02
2.799998480000608136e+00 1.939058670359999903e-01 7.941611331243143468e+02 7.878043709187941204e+02
3.500004500004499697e+00 1.728393827159999951e-01 8.675807273415875898e+02 8.610877226492535783e+02
2.599997120002303763e+00 2.006173827160000200e-01 7.738854334038551315e+02 7.676108333104322128e+02
2.700003700003700047e+00 1.972241271000000074e-01 7.843453480619477887e+02 7.785232363495108530e+02
3.399994720006336291e+00 1.756199834710000240e-01 8.580773850524229829e+02 8.515060451021322478e+02
3.300002580001548225e+00 1.784747766359999765e-01 8.464443618730035723e+02 8.397784820408244286e+02
3.200004200004200161e+00 1.814057709750000191e-01 8.359081685207769397e+02 8.294761060288342378e+02
3.600006440009015929e+00 1.701321531190000125e-01 8.789760066387802908e+02 8.723338525486170738e+02
3.100007380013284131e+00 1.844138143960000198e-01 8.244889077719487886e+02 8.182075651605362054e+02
3.800007680012288169e+00 1.649303611109999845e-01 9.002026031563709694e+02 8.931994572766344618e+02
3.699999060000187967e+00 1.674966292439999949e-01 8.898229429280438580e+02 8.827450186047376519e+02
3.899991180015875969e+00 1.624325372760000163e-01 9.099892808493679013e+02 9.035208785890971512e+02
2.500003500003499912e+00 2.040815102040000051e-01 7.648938642097778029e+02 7.580193648925105663e+02
2.399995920004895922e+00 2.076126020759999913e-01 7.548368609879387350e+02 7.484518692227436532e+02
2.300003300003299778e+00 2.112028191000000221e-01 7.456711912378093530e+02 7.396260082103658533e+02
2.200000000000000178e+00 2.148437500000000000e-01 7.360908000319564053e+02 7.297762550832160287e+02
3.000000000000000000e+00 1.875000000000000000e-01 8.196194812257592730e+02 8.133004418644088673e+02
3.000000000000000000e+00 1.875000000000000000e-01 8.252885422800952711e+02 8.191208330045930097e+02
3.000000000000000000e+00 1.875000000000000000e-01 8.357168915979352732e+02 8.293855487422711121e+02
3.000000000000000000e+00 1.875000000000000000e-01 8.208337846542150373e+02 8.145851659880447642e+02
3.000000000000000000e+00 1.875000000000000000e-01 8.140222223920000033e+02 8.076532391567270679e+02
3.000000000000000000e+00 1.875000000000000000e-01 8.153644653805615690e+02 8.089945621178383135e+02
3.000000000000000000e+00 1.875000000000000000e-01 8.230249687381091235e+02 8.168229749172878655e+02
3.000000000000000000e+00 1.875000000000000000e-01 8.174679616144435386e+02 8.111214766675807368e+02
3.000000000000000000e+00 1.875000000000000000e-01 8.181821450936158726e+02 8.118292448364345546e+02
4.199991680013311246e+00 1.553256331360000075e-01 9.382408666193377940e+02 9.315104992796675560e+02
4.100011220024684100e+00 1.576314179159999940e-01 9.286007692413153336e+02 9.220279152672603686e+02
4.400005400005399636e+00 1.508915157749999847e-01 9.567918059627594403e+02 9.507051207357437761e+02
4.300006890008956084e+00 1.530792349589999990e-01 9.460163632857859284e+02 9.401290417800255454e+02
2.000003000003000242e+00 2.222221111109999869e-01 7.183445896709259841e+02 7.115040454815571138e+02
1.799998880000448054e+00 2.295918775509999954e-01 7.025843696034977484e+02 6.961610152192571377e+02
1.899996520004175737e+00 2.259216504160000139e-01 7.101990231550271346e+02 7.035442884473138747e+02
2.099996590003750718e+00 2.185224984390000125e-01 7.272669128361808362e+02 7.204314560756002948e+02
1.700002700002700262e+00 2.331960630999999895e-01 6.957243512778948116e+02 6.892407932841633738e+02
4.000000000000000000e+00 1.600000000000000311e-01 9.186173506993088722e+02 9.124267639465446109e+02
7.000000000000000000e+00 1.093750000000000000e-01 1.855966753450520173e+03 1.849673714191012778e+03
7.000000000000000000e+00 1.093750000000000000e-01 1.897048342733803338e+03 1.892404821880098098e+03
6.000007000006999824e+00 1.224488775510000071e-01 1.645092712541132641e+03 1.638327063048858690e+03
6.000007000006999824e+00 1.224488775510000071e-01 1.676794694860151367e+03 1.670272711298972354e+03
4.999988000023999568e+00 1.388891111109999965e-01 1.431114203862969589e+03 1.424921622660655657e+03
4.000000000000000000e+00 1.600000000000000311e-01 1.369436359874080608e+03 1.362745014074482924e+03
4.000000000000000000e+00 1.600000000000000311e-01 2.010664499573087824e+03 2.003802139290685318e+03
4.000000000000000000e+00 1.600000000000000311e-01 2.011476801878669676e+03 2.004578138646235857e+03
4.000000000000000000e+00 1.600000000000000311e-01 2.014031300940282563e+03 2.007141627642635513e+03
4.000000000000000000e+00 1.600000000000000311e-01 9.187016430816224783e+02 9.122232562266717650e+02
4.000000000000000000e+00 1.600000000000000311e-01 9.187812506457719337e+02 9.123066900805386013e+02
4.000000000000000000e+00 1.600000000000000311e-01 9.207264406052133836e+02 9.142156542294048904e+02
3.000000000000000000e+00 1.875000000000000000e-01 1.755652209037175680e+03 1.749154193736908383e+03
3.000000000000000000e+00 1.875000000000000000e-01 1.754665481947917215e+03 1.748144941906623444e+03
3.000000000000000000e+00 1.875000000000000000e-01 1.216901062552753501e+03 1.210398399481129900e+03
2.000003000003000242e+00 2.222221111109999869e-01 1.535375598976920173e+03 1.528905056059539675e+03
2.000003000003000242e+00 2.222221111109999869e-01 1.535775290874102211e+03 1.529299571335940755e+03
2.500003500003499912e+00 2.040815102040000051e-01 1.640681963989868109e+03 1.634049512727899582e+03
2.500003500003499912e+00 2.040815102040000051e-01 1.641327096893248836e+03 1.634790016966347821e+03
2.500003500003499912e+00 2.040815102040000051e-01 1.646790067192279821e+03 1.640317071353444589e+03
2.500003500003499912e+00 2.040815102040000051e-01 1.641327736578360145e+03 1.634790556085685921e+03
2.500003500003499912e+00 2.040815102040000051e-01 1.632810191452144863e+03 1.626219626415307175e+03
2.500003500003499912e+00 2.040815102040000051e-01 1.647269996405206257e+03 1.640753457453251940e+03
2.500003500003499912e+00 2.040815102040000051e-01 1.603280051169348098e+03 1.596856979390210881e+03
2.500003500003499912e+00 2.040815102040000051e-01 1.638685202518803635e+03 1.632005629223614505e+03
2.500003500003499912e+00 2.040815102040000051e-01 1.638674208044785701e+03 1.631994771617714377e+03
2.500003500003499912e+00 2.040815102040000051e-01 1.632283067052064553e+03 1.625476369800300517e+03
2.500003500003499912e+00 2.040815102040000051e-01 1.640228613716575410e+03 1.633557989055998405e+03
2.250003250003250077e+00 2.130176331360000286e-01 1.585974420165834999e+03 1.579414275865641457e+03
1.503826632595298030e+01 5.863626285331192262e-02 6.853055894866873814e+02 6.786399086314393116e+02
9.996319345018683578e+00 8.298640402921561576e-02 1.040599128389186944e+03 1.034122585064507803e+03
1.000000000000000000e+00 2.500000000000000000e-01 1.397014721471768098e+03 1.390502650042511050e+03
1.000000000000000000e+00 2.500000000000000000e-01 1.395039797430949420e+03 1.388521585611699493e+03
1.000000000000000000e+00 2.500000000000000000e-01 1.388864689495777839e+03 1.382303238476899878e+03
1.000000000000000000e+00 2.500000000000000000e-01 1.366605305520017737e+03 1.360060105444259534e+03
1.750002750002749963e+00 2.314048595040000267e-01 1.487011289504238903e+03 1.480513494169933438e+03
1.499999999999999778e+00 2.399999999999999911e-01 1.443735915739873235e+03 1.437219512367149946e+03
1.250002250002250070e+00 2.469135308640000304e-01 1.410019034739479139e+03 1.403431666627583581e+03
